ncols        53
nrows        72
xllcorner    125.100000000000
yllcorner    1.300000000000
cellsize     0.004166666667
NODATA_value -32767
 160 119 78 66 66 62 45 22 17 15 41 53 -36 -54 -72 -89 -107 -127 -154 -189 -232 -280 -333 -391 -451 -510 -565 -616 -663 -703 -731 -752 -768 -781 -786 -780 -766 -745 -720 -691 -660 -629 -599 -570 -543 -519 -499 -631 -617 -562 -457 -443 -423
 156 100 71 72 79 61 27 21 15 12 37 69 -24 -41 -60 -79 -99 -121 -148 -182 -221 -266 -315 -371 -430 -488 -539 -588 -634 -673 -697 -715 -730 -740 -744 -734 -716 -693 -665 -634 -601 -568 -535 -507 -480 -457 -440 -559 -544 -488 -476 -420 -396
 186 95 74 77 83 59 29 33 18 15 20 84 -13 -28 -47 -68 -90 -114 -139 -171 -207 -247 -293 -346 -404 -463 -510 -556 -601 -642 -662 -676 -688 -699 -704 -689 -667 -642 -612 -579 -544 -508 -473 -444 -418 -395 -379 -381 -457 -435 -402 -373 -354
 193 97 81 84 90 66 37 35 28 20 18 64 78 -15 -36 -59 -82 -106 -131 -159 -190 -226 -267 -317 -371 -425 -472 -517 -559 -595 -616 -632 -643 -651 -651 -638 -617 -590 -559 -525 -489 -452 -416 -386 -359 -337 -323 -324 -364 -352 -339 -335 -315
 218 146 96 89 70 48 51 39 27 23 31 43 40 -8 -27 -49 -73 -97 -121 -144 -170 -199 -236 -282 -333 -384 -431 -474 -514 -547 -569 -585 -596 -602 -601 -588 -567 -540 -509 -474 -437 -398 -361 -330 -301 -277 -263 -264 -274 -263 -249 -253 -296
 257 199 123 80 68 72 57 41 39 34 31 57 57 34 -17 -39 -64 -87 -110 -127 -145 -168 -199 -243 -293 -344 -388 -430 -468 -501 -522 -538 -549 -556 -555 -542 -520 -492 -461 -426 -388 -348 -308 -276 -246 -219 -200 -206 -219 -173 -188 -199 -280
 292 229 162 88 92 88 74 49 50 40 33 49 75 60 17 -29 -53 -74 -95 -105 -117 -133 -157 -201 -252 -302 -344 -383 -421 -456 -475 -490 -502 -510 -513 -498 -475 -448 -418 -383 -345 -302 -259 -229 -199 -168 -142 -157 -176 -146 -162 -188 -272
 266 211 156 94 106 127 114 71 62 53 53 60 69 41 19 22 -37 -51 -65 -74 -85 -100 -124 -162 -207 -253 -294 -332 -368 -400 -422 -439 -452 -462 -463 -452 -433 -408 -379 -346 -309 -270 -230 -198 -168 -140 -124 -134 -155 -142 -154 -184 -205
 201 166 133 115 123 148 145 136 92 84 83 86 60 24 30 35 28 -20 -30 -38 -47 -62 -86 -120 -160 -202 -242 -279 -314 -344 -368 -388 -404 -414 -417 -409 -393 -371 -344 -313 -279 -243 -207 -175 -145 -121 -109 -118 -142 -173 -157 -182 -200
 209 175 149 134 138 177 204 196 120 116 83 59 46 34 47 55 57 54 49 38 -5 -18 -40 -72 -111 -152 -189 -225 -259 -290 -316 -338 -356 -370 -377 -371 -357 -338 -313 -285 -253 -220 -186 -155 -126 -101 -90 -103 -130 -166 -172 -191 -226
 270 229 171 157 161 168 173 191 125 76 64 91 80 59 78 89 103 109 109 83 62 45 13 -21 -60 -100 -136 -171 -205 -237 -264 -289 -310 -328 -339 -335 -324 -307 -285 -259 -231 -200 -169 -139 -110 -84 -68 -671 -121 -160 -185 -210 -258
 337 271 200 161 167 179 183 180 124 78 79 114 112 114 118 129 136 159 173 147 125 101 81 56 33 18 -80 -114 -148 -181 -212 -240 -264 -284 -297 -297 -290 -277 -258 -236 -211 -185 -158 -129 -101 -77 5 -85 -117 -159 -207 -236 -287
 326 264 203 185 184 190 212 194 147 113 101 145 154 153 158 165 183 213 231 213 200 168 140 118 81 52 31 -57 -91 -126 -161 -193 -220 -242 -257 -262 -259 -250 -233 -213 -192 -172 -150 -123 -94 50 22 -81 -115 -158 -236 -263 -308
 349 246 223 250 206 213 227 236 227 177 144 206 213 211 214 215 239 270 293 283 274 258 233 209 168 109 71 31 -34 -71 -114 -149 -180 -205 -223 -231 -231 -225 -210 -191 -172 -160 -146 -118 -87 47 14 -74 -112 -157 -211 -284 -349
 326 269 247 277 220 242 233 264 260 239 196 260 266 264 266 261 283 327 362 368 373 372 349 315 258 201 143 81 31 -18 -72 -110 -142 -170 -192 -202 -205 -202 -187 -167 -148 -146 -142 -113 83 59 26 -72 -117 -161 -216 -372 -399
 348 312 278 285 237 258 278 300 286 277 236 304 300 297 328 328 351 394 443 469 476 476 445 392 362 303 238 157 90 53 -28 -70 -106 -137 -159 -171 -175 -173 -162 -147 -134 -128 -120 -99 102 86 -60 -94 -140 -181 -229 -281 -418
 409 356 343 330 274 268 306 330 326 296 300 331 335 324 365 386 418 461 512 576 608 597 549 494 470 385 306 229 159 102 56 40 -75 -106 -130 -143 -147 -145 -137 -127 -116 -107 -98 82 94 38 -78 -116 -169 -202 -243 -292 -421
 445 401 390 341 332 303 306 323 343 318 330 363 361 354 384 410 466 527 595 700 782 767 696 667 584 457 373 292 214 146 105 65 -47 -81 -106 -118 -122 -120 -114 -105 -95 -86 -77 -70 60 -67 -81 -118 -165 -206 -252 -390 -478
 439 412 367 377 396 352 344 330 350 355 345 382 387 377 402 440 498 578 703 862 961 947 866 801 656 530 438 345 253 184 127 86 46 -59 -87 -96 -99 -97 -91 -83 -74 -66 -58 -57 34 -64 -77 -117 -163 -207 -258 -469 -512
 458 446 397 410 454 399 358 388 394 380 372 409 410 398 423 460 518 603 756 966 1041 858 808 824 734 601 483 377 277 204 135 93 55 -37 14 -73 -76 -74 -69 -62 -55 -49 -45 55 -55 -67 -88 -126 -170 -218 -453 -487 -517
 471 476 428 443 499 427 413 416 434 399 397 430 407 401 423 457 522 608 745 912 967 781 701 676 756 661 509 392 294 216 147 89 53 34 16 -54 -56 -53 -49 -43 -37 -33 55 39 -53 -72 -98 -136 -181 -410 -444 -487 -518
 440 461 428 438 419 397 373 371 379 386 418 453 419 416 423 454 509 585 704 850 860 820 704 651 675 664 522 411 348 254 141 87 61 38 17 10 -39 -34 -29 -24 -19 94 81 -31 -50 -74 -105 -146 -193 -354 -414 -482 -519
 421 461 438 407 364 365 338 347 362 394 436 472 442 442 436 448 489 569 701 753 700 718 752 683 654 658 546 418 344 239 141 90 53 35 15 7 -24 -17 -11 -6 -1 79 69 -21 -47 -76 -110 -156 -206 -321 -387 -469 -506
 371 422 436 400 354 325 326 341 364 405 459 502 493 488 475 468 508 653 685 614 578 589 624 655 660 630 527 397 296 212 155 103 59 33 -16 -19 -12 -3 5 10 55 98 44 -17 -47 -83 -123 -170 -221 -249 -356 -435 -465
 374 437 409 367 343 309 315 336 369 423 480 536 603 594 609 562 545 689 620 514 514 518 516 512 524 527 425 370 298 225 153 103 64 28 -16 -15 -3 11 20 25 124 85 27 -12 -49 -91 -136 -185 -165 -237 -349 -439 -479
 357 404 399 371 338 301 301 330 367 423 505 621 746 769 815 666 581 626 570 481 478 474 460 440 430 433 361 343 291 224 147 99 35 -10 -25 -16 5 26 35 93 190 100 32 45 21 -101 -149 -202 -187 -253 -367 -470 -510
 327 356 340 344 311 292 287 311 351 427 538 700 897 1036 1056 811 677 677 708 529 480 451 420 396 357 352 346 314 306 235 175 101 35 27 -49 -23 11 42 76 177 219 110 65 36 8 -117 -166 -172 -206 -268 -378 -481 -517
 302 310 260 286 277 279 273 291 343 429 556 736 982 1221 1204 1011 912 900 835 651 516 425 370 345 302 287 303 316 309 261 218 145 67 40 -43 -18 17 45 168 276 259 184 128 56 29 -143 -194 -242 -278 -317 -394 -494 -539
 291 265 208 230 267 257 254 272 314 399 525 685 868 1018 1037 1030 1057 925 773 608 487 394 319 288 261 255 275 280 261 265 210 106 48 -43 -42 -12 27 56 207 221 209 159 110 40 -124 -173 -225 -299 -370 -410 -457 -519 -538
 288 240 172 183 221 229 240 238 279 354 452 556 687 787 858 892 850 747 634 541 438 344 270 231 209 204 208 240 232 261 225 159 -28 -62 -50 -8 56 170 264 187 98 56 53 -113 -152 -199 -209 -311 -398 -467 -518 -538 -569
 262 225 179 151 161 177 196 206 243 299 361 435 540 627 670 668 646 590 492 417 360 297 234 192 171 161 145 200 209 245 206 156 -36 -59 -54 -2 99 215 275 217 143 62 -104 -129 -165 -214 -221 -292 -371 -447 -512 -541 -592
 218 209 212 151 133 157 173 177 206 245 300 350 412 469 469 467 470 440 387 313 278 230 189 153 131 127 122 154 155 190 157 85 54 -51 -36 59 137 213 205 167 109 62 21 -111 -156 -210 -225 -291 -389 -462 -515 -535 -595
 164 200 215 184 133 136 147 152 172 209 244 269 318 351 344 340 332 321 285 229 203 172 143 117 96 98 92 103 72 94 56 -68 -62 -50 30 71 127 205 171 109 54 30 -45 -84 -136 -169 -237 -313 -403 -476 -526 -537 -588
 171 162 180 184 129 120 115 128 141 167 187 209 241 260 252 243 221 219 187 155 136 116 100 81 64 71 49 28 18 34 21 -104 -78 -52 -22 55 143 234 192 102 52 29 -9 -50 -111 -199 -268 -363 -443 -498 -535 -535 -582
 178 132 164 139 87 87 86 99 106 122 133 146 164 174 165 158 142 145 111 92 82 70 59 52 42 41 47 -96 -156 -211 -169 -123 -84 -52 -21 84 157 241 161 87 39 16 21 -15 -91 -170 -296 -383 -436 -485 -489 -542 -593
 152 117 113 91 62 62 70 76 74 81 89 92 99 111 102 92 82 81 57 41 38 35 33 25 25 16 20 -100 -142 -171 -147 -109 -72 -41 36 46 127 188 105 48 47 -16 -3 -4 -93 -181 -374 -462 -494 -520 -505 -559 -623
 149 112 83 68 48 48 53 55 50 49 51 44 63 71 50 41 35 26 19 17 16 14 18 12 13 10 -61 -84 -106 -117 -102 -75 -47 -21 26 112 137 112 56 30 -77 -80 -77 -88 -146 -271 -354 -433 -490 -523 -525 -580 -647
 143 114 89 55 34 31 34 38 31 24 22 17 31 34 13 12 12 7 6 7 8 8 8 5 5 5 -51 -57 -63 -63 -51 -33 -14 4 64 167 180 100 63 -79 -143 -143 -149 -161 -222 -297 -337 -454 -499 -539 -547 -596 -670
 136 109 82 60 39 22 18 21 15 9 8 8 8 7 3 4 5 4 4 2 6 4 -23 -24 -29 -38 -30 -23 -17 -10 0 12 27 73 110 217 223 140 89 -76 -129 -158 -189 -201 -231 -290 -391 -468 -512 -539 -575 -627 -705
 128 100 78 56 36 20 14 12 9 -15 -13 -13 -16 -19 -23 -28 -38 -49 -55 -46 -33 -20 -12 -7 -6 -5 6 27 33 80 83 49 83 82 153 245 251 149 64 24 -102 -134 -166 -196 -238 -292 -356 -483 -517 -560 -590 -688 -714
 118 90 69 47 30 16 12 8 -41 -33 -29 -29 -34 -39 -41 -40 -47 -51 -48 -40 -24 -7 26 28 51 32 38 82 100 207 176 136 178 189 222 296 236 143 97 -44 -74 -96 -123 -165 -246 -282 -363 -483 -522 -576 -613 -669 -717
 109 82 61 44 24 11 -79 -76 -62 -48 -40 -43 -51 -57 -58 -54 -56 -58 -54 19 38 64 116 132 117 119 93 107 185 292 306 272 308 303 336 286 193 87 37 -33 -50 -56 -70 -215 -270 -278 -359 -495 -520 -564 -608 -657 -715
 100 80 70 61 33 -73 -111 -97 -76 -58 -47 -54 -66 -74 -72 -63 -63 -63 -61 19 42 79 128 156 149 156 177 183 253 344 398 366 304 289 313 247 163 75 -18 -40 -43 -28 -15 -234 -302 -266 -358 -502 -519 -548 -592 -651 -713
 91 78 69 66 29 -66 -93 -91 -79 -66 -59 -64 -72 -77 -76 -71 -65 -57 -45 29 69 100 122 137 176 224 246 243 283 317 330 304 211 208 200 175 177 124 64 -69 -67 -37 -15 -271 -352 -262 -508 -521 -546 -566 -596 -651 -711
 80 66 56 53 23 -51 -72 -78 -75 -70 -68 -80 -76 -78 -76 -75 -64 -47 39 50 74 87 126 171 191 199 181 200 201 231 253 229 99 82 71 48 85 96 -104 -112 -112 -59 -18 -308 -406 -278 -503 -530 -565 -584 -614 -661 -710
 71 54 45 39 19 -39 -56 -66 -69 -73 -82 -82 -82 -79 -75 -68 -54 34 40 38 49 67 128 157 127 99 97 122 149 186 186 159 58 29 43 -100 39 42 -150 -139 -118 -75 -290 -357 -192 -324 -528 -546 -582 -610 -648 -690 -727
 62 40 33 23 -11 -32 -47 -59 -65 -75 -84 -85 -79 -81 -75 -64 26 25 25 27 61 88 113 107 57 27 42 104 136 132 112 83 -31 26 -136 -154 -177 25 -185 -163 -137 -101 -358 -425 -240 -541 -547 -571 -610 -653 -693 -731 -756
 49 32 20 11 -13 -33 -50 -62 -71 -83 -88 -91 -81 -81 -75 -64 -49 26 28 66 56 44 65 49 54 57 31 84 71 71 53 42 -64 -111 -149 -165 -179 -192 -188 -182 -173 -160 -394 -464 -491 -522 -553 -578 -622 -678 -726 -757 -746
 38 22 12 5 -19 -40 -58 -71 -79 -91 -94 -95 -81 -82 -77 -68 22 -42 25 -17 -6 16 20 33 43 51 53 50 34 22 17 17 -89 -130 -152 -158 -159 -164 -179 -201 -221 -339 -415 -473 -491 -519 -557 -585 -626 -692 -740 -720 -777
 25 9 17 -2 -26 -50 -70 -80 -86 -96 -98 -99 -84 -85 -81 -75 -66 24 -46 -38 -29 -18 -4 14 33 46 45 36 21 -2 -34 -70 -108 -139 -155 -149 -135 -131 -169 -222 -276 -365 -462 -513 -530 -544 -569 -610 -663 -713 -703 -758 -819
 12 21 6 -10 -36 -61 -83 -90 -94 -99 -101 -102 -90 -91 -88 -83 -78 -72 -66 -62 -56 -47 -32 -7 20 41 8 22 3 -23 -57 -93 -127 -154 -167 -150 -123 -105 -169 -247 -329 -355 -467 -522 -553 -568 -587 -639 -711 -702 -736 -798 -859
 12 -2 -16 -31 -50 -70 -86 -95 -100 -99 -104 -105 -106 -93 -92 -92 -92 -92 -91 -89 -85 -78 -60 -32 -2 19 18 4 -15 -45 -81 -118 -150 -173 -182 -169 -152 -155 -204 -247 -285 -379 -489 -536 -560 -577 -602 -580 -662 -740 -792 -849 -890
 -9 -28 -40 -51 -65 -78 -89 -101 -108 -105 -101 -107 -108 -95 -96 -101 -106 -111 -115 -115 -114 -111 -93 -61 -26 -1 -5 -19 -37 -69 -110 -148 -180 -203 -210 -203 -194 -211 -225 -251 -343 -422 -502 -540 -568 -478 -490 -566 -679 -785 -841 -899 -916
 -27 -51 -59 -67 -77 -88 -96 -107 -117 -109 -99 -100 -112 -117 -123 -124 -126 -129 -132 -133 -136 -143 -146 -149 -150 -153 -157 -161 -158 -156 -162 -204 -265 -322 -351 -294 -190 -193 -239 -326 -415 -453 -458 -515 -486 -428 -344 -522 -689 -810 -858 -915 -947
 -35 -56 -67 -76 -83 -90 -97 -104 -110 -109 -107 -109 -122 -121 -124 -121 -126 -133 -140 -138 -145 -150 -146 -125 -158 -160 -160 -158 -160 -162 -161 -245 -356 -413 -420 -373 -265 -247 -310 -402 -474 -394 -450 -496 -522 -518 -505 -615 -747 -837 -891 -941 -976
 -40 -59 -72 -81 -88 -89 -95 -101 -105 -111 -115 -120 -122 -128 -127 -129 -134 -134 -136 -143 -144 -149 -168 -160 -151 -145 -148 -147 -147 -141 -149 -248 -382 -451 -449 -341 -334 -345 -333 -347 -363 -380 -455 -526 -586 -641 -651 -723 -824 -869 -915 -970 -1005
 -47 -65 -78 -86 -90 -91 -96 -103 -110 -115 -120 -123 -126 -128 -130 -134 -137 -138 -141 -142 -145 -147 -151 -150 -151 -210 -221 -250 -282 -312 -335 -352 -371 -391 -402 -393 -378 -370 -361 -374 -397 -429 -492 -565 -626 -681 -719 -772 -831 -856 -908 -993 -1029
 -56 -73 -84 -91 -92 -93 -97 -105 -116 -121 -125 -126 -128 -128 -127 -127 -128 -133 -141 -162 -175 -175 -197 -227 -252 -270 -276 -315 -354 -384 -400 -405 -422 -445 -464 -444 -417 -397 -385 -408 -438 -475 -529 -604 -653 -702 -747 -779 -810 -784 -833 -987 -1027
 -66 -84 -92 -95 -95 -95 -96 -106 -118 -125 -130 -131 -131 -131 -129 -128 -130 -139 -156 -189 -218 -217 -231 -272 -304 -337 -356 -384 -419 -449 -450 -451 -461 -481 -501 -482 -451 -433 -432 -452 -481 -514 -546 -607 -660 -709 -749 -734 -691 -610 -605 -787 -937
 -78 -91 -98 -99 -100 -101 -104 -110 -121 -128 -132 -134 -134 -133 -131 -129 -132 -146 -174 -223 -277 -267 -289 -326 -337 -348 -405 -430 -461 -477 -478 -477 -483 -494 -509 -506 -476 -470 -478 -496 -522 -555 -571 -614 -658 -696 -716 -685 -607 -473 -337 -604 -822
 -88 -97 -101 -103 -105 -110 -115 -119 -126 -132 -135 -136 -135 -135 -133 -131 -135 -148 -175 -228 -281 -306 -333 -358 -368 -381 -414 -438 -467 -486 -491 -491 -494 -500 -507 -509 -501 -507 -517 -530 -548 -569 -586 -618 -654 -685 -698 -676 -620 -533 -442 -618 -743
 -98 -104 -104 -107 -110 -119 -126 -128 -130 -135 -139 -138 -136 -135 -136 -131 -139 -151 -170 -233 -293 -339 -375 -390 -394 -401 -421 -438 -469 -493 -499 -499 -502 -504 -507 -514 -519 -539 -550 -557 -567 -577 -591 -617 -649 -681 -699 -689 -665 -632 -480 -675 -685
 -106 -111 -109 -110 -114 -125 -134 -131 -131 -136 -141 -137 -134 -132 -134 -137 -154 -173 -195 -261 -320 -373 -416 -421 -418 -419 -440 -460 -484 -504 -509 -510 -513 -514 -514 -530 -547 -573 -575 -575 -578 -582 -589 -611 -640 -677 -703 -687 -657 -606 -514 -546 -556
 -104 -108 -106 -106 -110 -122 -123 -124 -125 -131 -135 -133 -129 -130 -136 -148 -184 -222 -262 -316 -354 -397 -431 -440 -442 -448 -467 -481 -498 -508 -516 -521 -529 -537 -548 -553 -563 -581 -584 -584 -585 -586 -591 -603 -623 -661 -684 -663 -628 -559 -472 -415 -440
 -99 -102 -100 -96 -95 -100 -106 -118 -124 -131 -135 -131 -127 -134 -158 -188 -231 -280 -329 -364 -391 -421 -446 -455 -459 -466 -478 -490 -503 -514 -524 -534 -545 -555 -565 -570 -576 -585 -588 -589 -590 -590 -591 -597 -612 -632 -640 -618 -577 -516 -449 -400 -393
 -96 -98 -93 -85 -76 -79 -91 -116 -125 -133 -141 -137 -134 -151 -192 -232 -278 -332 -391 -405 -419 -440 -461 -465 -469 -476 -484 -494 -505 -518 -530 -543 -559 -568 -579 -580 -583 -587 -589 -591 -593 -593 -588 -588 -596 -604 -603 -575 -533 -479 -429 -389 -369
 -94 -96 -90 -76 -53 -62 -82 -107 -123 -131 -141 -158 -186 -226 -252 -278 -312 -355 -396 -415 -428 -442 -456 -464 -470 -478 -487 -497 -507 -518 -530 -544 -559 -570 -579 -582 -584 -586 -587 -590 -593 -592 -586 -582 -581 -578 -566 -538 -498 -452 -408 -371 -346
 -98 -100 -95 -79 -30 -55 -84 -107 -125 -129 -138 -175 -233 -306 -309 -317 -336 -368 -398 -417 -429 -438 -446 -457 -468 -478 -488 -498 -507 -517 -528 -543 -558 -570 -579 -582 -583 -583 -583 -590 -595 -590 -583 -576 -568 -557 -538 -508 -470 -428 -387 -350 -320
 -108 -110 -104 -90 -70 -82 -103 -116 -124 -129 -141 -178 -235 -291 -325 -341 -353 -381 -405 -420 -428 -433 -436 -450 -465 -478 -491 -501 -509 -520 -527 -544 -560 -572 -580 -583 -583 -583 -585 -589 -592 -588 -580 -571 -559 -542 -518 -487 -449 -407 -367 -328 -294
 -121 -123 -118 -110 -104 -114 -130 -132 -131 -132 -140 -175 -247 -322 -358 -374 -386 -403 -420 -429 -433 -434 -437 -450 -466 -481 -497 -511 -524 -537 -546 -557 -569 -577 -582 -585 -585 -584 -588 -592 -593 -589 -580 -569 -555 -535 -508 -474 -435 -392 -352 -312 -272
 -134 -138 -133 -129 -128 -135 -146 -148 -148 -147 -147 -179 -283 -381 -402 -409 -417 -428 -439 -443 -444 -443 -441 -456 -472 -488 -506 -524 -541 -558 -566 -575 -582 -587 -589 -593 -592 -589 -597 -602 -601 -596 -585 -574 -558 -536 -507 -473 -432 -386 -350 -310 -266
 -139 -142 -142 -142 -145 -152 -161 -169 -177 -189 -214 -266 -337 -402 -426 -434 -440 -448 -456 -460 -461 -461 -461 -470 -484 -500 -518 -537 -556 -572 -584 -593 -600 -606 -609 -612 -613 -613 -617 -619 -618 -612 -601 -588 -570 -547 -518 -484 -446 -406 -370 -334 -299
